ply
format ascii 1.0
element vertex 1280
property float x
property float y
property float z
property float nx
property float ny
property float nz
end_header
0.2 0.5 -0.2 -0.848528 -0 0.848528
-0.5 -0.2 0.3 -0 1.2 -0
-0.2 0.35 0.5 1.2 -0 -0
0.35 -0.478438 0.437444 -0 1.03698 -0.603882
-0.478438 -0.1 -0.437444 1.03698 2.14995e-06 0.603882
0.466504 -0.465603 0.3 -0.871994 0.824394 -0
-0.5 0.05 -0.35 -0 -1.2 -0
0.497029 -0.05 -0.399409 -1.17694 -1.94778e-05 0.234102
-0.35 -0.15 -0.5 -0 1.2 -0
-0.25 0.5 -0.1 -0.749634 -0 0.937043
-0.399409 0.1 0.497029 0.234102 -3.54143e-06 -1.17694
-0.5 0.2 -0.1 -0 0.445669 -1.11417
0.1 -0.5 0.3 1.2 -0 -0
-0.3 -0.5 0.15 -0 -0 -0
0.05 -0.5 0.05 -0.848528 -0 -0.848528
0.497029 0.25 0.399409 -1.17694 -0 -0.234102
-0.399409 0.497029 0.35 0.234119 -1.17694 -0
0.466504 -0.15 -0.465603 -0.871993 -0 0.824395
-0.398852 0.494229 -0.39883 0.229607 -1.15435 0.234021
3.57628e-08 0.399409 0.497029 1.41659e-05 -0.234105 -1.17694
0.15 0.05 -0.5 -0 -1.2 -0
0.3 -0.5 0.2 -0 -0 1.2
-0.437444 -0.0500001 -0.478438 0.603882 -4.0849e-06 1.03698
0.437444 0 0.478438 -0.603881 -0 -1.03698
-0.15 0.15 0.5 -0 -0 -0
-0.5 -0.15 -0.25 -0 1.2 -0
-0.497029 -0.399409 0.35 1.17694 0.234119 -0
0 0.1 -0.5 -0 1.2 -0
-0.5 -0.1 0.25 -0 -1.2 -0
-0.465603 -0.466504 -0.25 0.824395 0.871993 -0
-0.1 -0.35 -0.5 -1.2 -0 -0
0.35 -0.5 0.35 -0 -0 -0
0.35 0.5 0.25 -1.2 -0 -0
-0.497029 0.399409 -0.25 1.17694 -0.234105 -0
-0.1 0.497029 0.399409 3.54143e-06 -1.17694 -0.234102
0.5 -0.3 0.35 -0 1.2 -0
-0.25 0.1 0.5 -0 -1.2 -0
-0.2 -0.5 -0.25 -1.2 -0 -0
0.15 -0.5 -0.1 0.749634 -0 -0.937043
-0.25 -0.05 -0.5 -0 1.2 -0
-0.478438 -0.437444 -0.25 1.03698 0.603882 -0
0.3 -0.5 0 1.2 -0 -0
-0.5 0.1 0.2 -0 1.17142 -0.260317
0.5 -0.0500001 0.35 -0 -1.2 -0
-0.15 0.5 0.35 -1.2 -0 -0
0.46277 -0.463507 0.404793 -0.798283 0.844378 -0.299615
-0.35 -0.15 0.5 -0 -0 -0
0.497029 0.3 -0.399409 -1.17694 -0 0.234119
0.05 -0.5 -0.3 -1.2 -0 -0
-0.465603 0.35 0.466504 0.824396 -0 -0.871992
0.437444 0.478438 -0.05 -0.603882 -1.03698 -2.36495e-06
0.25 -0.5 0 -0 -0 -0
-0.466504 -0.465603 0.2 0.871993 0.824395 9.44781e-07
-0.5 0.2 0.15 -0 1.2 -0
0.15 -0.2 0.5 0.66564 -0.99846 -0
-0.2 0.25 -0.5 -1.2 -0 -0
0.1 -0.5 0.05 0.214663 -0 -1.18064
-0.3 0.5 0.1 -1.1236 -0 0.421348
0.5 -0.15 -0.1 -0 0.749634 0.937043
0.3 0.399409 0.497029 -0 -0.234102 -1.17694
-0.05 0.497029 -0.399409 -1.9478e-05 -1.17694 0.234119
0.25 0.35 -0.5 -0 -0 -0
-0.35 1.78814e-08 0.5 -0 1.2 -0
0.15 -0.497029 0.399409 -7.08284e-06 1.17694 -0.234116
-0.3 0.25 -0.5 -0 -0 -0
-0.399409 0.3 0.497029 0.234102 -0 -1.17694
0.1 -0.35 -0.5 1.2 -0 -0
-0.466504 -0.465603 -0.35 0.871992 0.824396 -0
0.5 -0.2 -0.15 -0 -0.99846 -0.66564
0.15 0.5 -0.25 1.2 -0 -0
-0.5 0.15 2.98209e-08 -0 0.848528 -0.848528
-0.478438 0.437444 -0.05 1.03698 -0.603882 -2.36495e-06
0.05 -0.5 0.3 -1.2 -0 -0
-0.15 0.466504 0.465603 -0 -0.871993 -0.824395
-0.05 -0.478438 -0.437444 -6.44984e-07 1.03698 0.603882
-0.5 -0.25 -0.25 -0 -0 -0
0.5 0.3 -0.15 -0 -0 -0
-0.2 0.5 -0.05 0.410092 -0 -1.12775
0.05 0.5 0 1.2 -0 -0
0.3 0.5 0.3 -0 -0 -0
-0.2 -0.497029 -0.399409 -7.08284e-06 1.17694 0.234116
-0.497029 -0.399409 0.15 1.17694 0.234105 -7.08294e-06
0.5 0 0.2 -0 -0 1.2
0.497029 -0.399409 0.1 -1.17694 0.234102 -3.54143e-06
-0.478438 -0.437444 -0.0500001 1.03698 0.603882 -4.0849e-06
0.399409 -0.497029 0.35 -0.234119 1.17694 -0
-0.3 -0.478438 0.437444 -0 1.03698 -0.603882
-0.05 -0.2 0.5 -1.12775 0.410092 -0
0.5 0.05 -0.2 -0 1.2 -0
-0.5 -0.15 0.35 -0 -1.2 -0
0.2 -0.5 0 1.2 -0 -0
0.05 0.25 -0.5 -1.12775 0.410092 -0
-0.478438 -0.25 -0.437444 1.03698 -0 0.603882
-0.437444 -0.15 0.478438 0.603881 1.71996e-06 -1.03698
-0.437444 0.478438 -0.35 0.603882 -1.03698 -0
0.2 -0.5 0.05 -0 -0 -1.2
-0.35 -0.5 -0.15 -0 -0 -1.2
-0.497029 0.399409 0.15 1.17694 -0.234116 -0
0.05 0.1 0.5 0.99846 -0.66564 -0
-0.1 -0.5 -0.15 -0.291043 -0 1.16417
-0.437444 -0.478438 -0.1 0.603882 1.03698 2.14995e-06
-0.2 0.399409 0.497029 -0 -0.234105 -1.17694
0.1 0.399409 0.497029 -3.54143e-06 -0.234102 -1.17694
-0.497029 0.399409 0.35 1.17694 -0.234105 -0
-0.437444 -0.25 0.478438 0.603882 -0 -1.03698
0.5 -0.25 0.05 -0 -1.1236 0.421348
0.5 0.2 -0.2 -0 -1.2 -0
0.5 -0.05 0 -0 -1.2 -0
0.399409 -0.497029 -3.57628e-08 -0.234105 1.17694 -1.41659e-05
0.35 0.5 0.1 -0 -0 -1.2
0.5 0.35 0.15 -0 -0 -1.2
-0.5 -0.35 0 -0 -0 -0
0.35 0.5 -0.2 -0 -0 1.2
-0.399409 -0.15 -0.497029 0.234116 -0 1.17694
0.35 0.35 -0.5 -0 -0 -0
-0.5 0.25 -0.05 -0 0.410092 1.12775
-0.5 0.1 -0.25 -0 1.2 -0
-0.35 -0.5 -0.3 -0 -0 -0
0.5 0.3 0 -0 -1.2 -0
-0.15 -0.437444 0.478438 -0 0.603882 -1.03698
0.35 0.1 -0.5 0.96 0.72 -0
-0.46277 0.463507 0.404793 0.798283 -0.844378 -0.299615
0.466504 -0.465603 -0.2 -0.871993 0.824395 -9.44781e-07
0.1 0.497029 -0.399409 -3.54143e-06 -1.17694 0.234102
0.25 0.437444 -0.478438 -0 -0.603882 1.03698
-0.466504 0.465603 0.35 0.871992 -0.824396 -0
0 -0.46606 -0.46606 -0 0.848528 0.848528
-0.494229 -0.398852 0.39883 1.15435 0.229609 -0.234022
-0.5 0.1 -0.35 -0 0.72 -0.96
-0.15 -0.5 -0.25 1.2 -0 -0
-0.497029 -0.399409 -3.57628e-08 1.17694 0.234105 -1.41659e-05
0.3 0.478438 -0.437444 -0 -1.03698 0.603883
-3.57628e-08 0.15 -0.5 0.848528 0.848528 -0
0.497029 0.399409 -0.25 -1.17694 -0.234102 -0
0.05 0.5 0.35 1.2 -0 -0
0.1 0.497029 0.399409 -1.77073e-05 -1.17694 -0.234119
-0.465603 -0.35 -0.466504 0.824396 -0 0.871992
0.25 0.5 0.35 -1.2 -0 -0
-0.05 -0.05 -0.5 0.848528 0.848528 -0
0.5 0 -0.05 -0 -0 -1.2
0.3 -0.478438 -0.437444 -0 1.03698 0.603882
0.5 -0.35 0 -0 -0 -0
-0.2 -0.465603 -0.466504 -9.44781e-07 0.824395 0.871993
0.5 0.25 0.35 -0 1.2 -0
0.35 -0.399409 0.497029 -0 0.234119 -1.17694
0.3 0.399409 -0.497029 -0 -0.234119 1.17694
0.437444 -0.478438 0 -0.603881 1.03698 -0
0.466504 0.465603 -0.3 -0.871994 -0.824394 -0
-0.437444 0.478438 -0.0500001 0.603882 -1.03698 -4.0849e-06
-0.5 0.25 0 -0 -0 -0
0.476657 0.436231 -0.395126 -1.01726 -0.600062 0.212409
0.5 0.1 0.25 -0 -1.2 -0
0.437444 0.478438 -0.1 -0.603882 -1.03698 2.14995e-06
0.5 -0.2 -0.3 -0 1.2 -0
0.2 -0.399409 0.497029 -0 0.234105 -1.17694
-0.466504 0.3 -0.465603 0.871994 -0 0.824394
-0.5 -0.3 -0.1 -0 1.0176 -0.635999
0.25 0.5 0.05 1.1236 -0 0.421348
-0.5 -0.15 -0.35 -0 -0 -0
-0.3 -0.25 0.5 -0 -0 -0
0.497029 0.399409 -0.3 -1.17694 -0.234102 -0
-0.399409 -0.497029 0.25 0.234102 1.17694 -0
-0.3 -0.3 -0.5 -0 -0 -0
0.05 -0.3 -0.5 -1.2 -0 -0
0.5 -0.25 -0.3 -0 -0 -0
0.15 -0.35 -0.5 -0 1.2 -0
0.466504 -0.05 0.465603 -0.871992 2.59815e-06 -0.824396
0.35 0.5 -0.05 0.705806 -0 -0.970483
0.5 -0.3 0 -0 1.2 -0
-0.46606 -0.46606 0 0.848528 0.848528 -0
-0.5 -0.3 -0.15 -0 -0 -0
0.5 0.15 -0.05 -0 0.96 -0.72
-0.437444 -0.478438 0.25 0.603882 1.03698 -0
0.35 0.5 -0.25 -0 -0 -0
0.5 -0.15 0.35 -0 -0 -0
0.398852 -0.494229 -0.39883 -0.229607 1.15435 0.234021
0.395364 -0.476695 -0.435989 -0.201657 1.01382 0.609514
0.5 0.25 0.05 -0 -0.410092 1.12775
-0.35 0.0500001 -0.5 -0 -1.2 -0
0.05 -0.3 0.5 0.970483 -0.705806 -0
0.2 -0.5 -0.3 1.2 -0 -0
0.446538 0.446538 -0.446728 -0.705525 -0.705525 0.666685
0.5 -0.3 0.05 -0 -0 1.2
-0.46326 0.404226 -0.463153 0.830967 -0.264855 0.824224
0.476695 0.395364 -0.435989 -1.01382 -0.201657 0.609514
0.1 -0.35 0.5 -1.2 -0 -0
0.437444 0.35 -0.478438 -0.603882 -0 1.03698
-0.5 -0.3 0.25 -0 -0 -0
-0.5 -0.25 -0.3 -0 -0 -0
0.2 -0.497029 0.399409 7.08284e-06 1.17694 -0.234116
-0.5 0.2 0.2 -0 -1.2 -0
-0.35 0.399409 0.497029 -0 -0.234119 -1.17694
-0.05 0.5 -0.1 -0.688155 -0 0.983078
-0.15 -0.497029 -0.399409 7.08284e-06 1.17694 0.234116
0.2 -0.35 0.5 -1.2 -0 -0
-0.5 -0.35 0.2 -0 -0 1.2
-0.05 0 0.5 -1.2 -0 -0
-0.476695 -0.395364 -0.435989 1.01382 0.201657 0.609514
0.2 0.5 -0.15 0.99846 -0 -0.66564
-0.437444 0.478438 -0.1 0.603882 -1.03698 -1.28997e-06
0.404226 0.46326 0.463153 -0.264853 -0.830968 -0.824224
-0.5 -0.35 -0.3 -0 1.2 -0
-0.5 -0.35 0.15 -0 -0 1.2
-0.5 0.1 0.35 -0 -0 -0
0.25 0.2 -0.5 -0 1.2 -0
-0.5 -0.1 -0.15 -0 -1.2 -0
0.25 0.05 0.5 -0 1.2 -0
-0.3 -0.5 0.2 -0 -0 1.2
-0.476657 0.436231 0.395126 1.01726 -0.600062 -0.212409
-0.05 0.5 0.15 -1.2 -0 -0
-0.1 0.5 -0.15 1.2 -0 -0
0.497029 -0.399409 -0.25 -1.17694 0.234105 -0
0 -0.5 -0.05 -0 -0 1.2
0.2 -0.5 0.1 0.445669 -0 1.11417
0.399409 0.497029 -0.15 -0.234105 -1.17694 7.08294e-06
0.05 0.05 0.5 0.848528 0.848528 -0
0.5 0.25 -0.1 -0 0.749634 0.937043
0.1 0.3 -0.5 -0.421348 -1.1236 -0
0.5 -0.1 0 -0 1.2 -0
0.46326 -0.404226 -0.463153 -0.830967 0.264855 0.824224
-0.15 -0.465603 0.466504 -0 0.824395 -0.871993
-0.1 0.25 0.5 1.2 -0 -0
0.25 0.15 -0.5 -0 -1.2 -0
-0.2 0.15 0.5 0.536656 -1.07331 -0
0.1 0 0.5 -1.2 -0 -0
0.478438 -0.35 0.437444 -1.03698 -0 -0.603881
-0.5 0.05 0.3 -0 1.2 -0
0.5 0.25 0.15 -0 -0.848528 -0.848528
0.399409 -0.497029 0.05 -0.234119 1.17694 1.9478e-05
0.399409 0.2 0.497029 -0.234105 -0 -1.17694
-0.1 -0.465603 -0.466504 -4.7239e-07 0.824394 0.871994
-0.2 -0.5 0.35 1.2 -0 -0
0.5 -0.25 0.25 -0 -0 -0
-0.5 0 0 -0 -0 -0
0.1 -0.5 0.35 0.72 -0 0.96
0.25 -0.5 0.35 -1.2 -0 -0
0.25 -0.465603 0.466504 -0 0.824395 -0.871993
-0.35 -0.1 0.5 -0 -0 -0
-0.399409 0.497029 -0.05 0.234102 -1.17694 -1.94778e-05
-0.404226 -0.46326 -0.463153 0.264855 0.830967 0.824224
-0.5 0.1 -0.2 -0 0.536656 1.07331
0.15 -0.497029 -0.399409 -7.08294e-06 1.17694 0.234105
0.35 0.15 0.5 -0 -0 -0
-0.15 0.5 0.05 1.1236 -0 0.421348
-0.437444 0.1 -0.478438 0.603882 -2.14995e-06 1.03698
0.478438 0.437444 0.2 -1.03698 -0.603883 -8.5998e-07
-0.437444 -0.478438 -0.15 0.603881 1.03698 1.71996e-06
-0.35 0.5 0.2 -0 -0 -1.2
-0.2 -0.05 -0.5 -0.96 0.72 -0
-0.1 0.437444 -0.478438 4.2999e-07 -0.603882 1.03698
0.25 -0.5 -0.25 -0 -0 -0
0.497029 0.399409 -0.1 -1.17694 -0.234102 3.54143e-06
0.25 -0.35 -0.5 -0 -1.2 -0
-0.15 -0.5 -0.3 -1.2 -0 -0
0 -0.2 -0.5 -0 -1.2 -0
-0.05 0.05 0.5 -0.848528 0.848528 -0
0.395364 -0.476695 0.435989 -0.201658 1.01382 -0.60951
0.5 8.9407e-09 0.35 -0 1.2 -0
0.5 0.15 0.2 -0 -1.07331 -0.536656
0.5 -0.35 -0.3 -0 -0 -0
0.05 -0.437444 0.478438 2.36495e-06 0.603882 -1.03698
0.2 0.399409 0.497029 7.08284e-06 -0.234116 -1.17694
-0.1 -0.497029 -0.399409 3.54143e-06 1.17694 0.234102
0.478438 -0.35 -0.437444 -1.03698 -0 0.603882
0.497029 -0.35 -0.399409 -1.17694 -0 0.234105
0.497029 -3.57628e-08 -0.399409 -1.17694 -1.41659e-05 0.234105
0.399409 -0.35 0.497029 -0.234105 -0 -1.17694
-0.5 -0.05 0.25 -0 1.2 -0
0.5 -0.25 -0.1 -0 -0 1.2
0.399409 -0.2 -0.497029 -0.234105 -0 1.17694
-0.1 0.5 -0.05 0.66564 -0 -0.99846
0.35 -0.437444 -0.478438 -0 0.603882 1.03698
-0.478438 -0.437444 -0.2 1.03698 0.603881 -8.59979e-07
0.25 -0.5 0.15 0.848528 -0 0.848528
0.3 -0.399409 0.497029 -0 0.234119 -1.17694
-0.5 0.35 0.3 -0 -1.2 -0
-0.497029 0.399409 -0.05 1.17694 -0.234119 -1.9478e-05
-0.446538 -0.446538 0.446728 0.705525 0.705525 -0.666685
0.5 0.15 0.15 -0 -0 -0
0.478438 -0.437444 -0.3 -1.03698 0.603882 -0
-0.15 0.5 0.15 -0 -0 -0
0.15 0.25 -0.5 0.848528 0.848528 -0
0.437444 -0.0500001 0.478438 -0.603882 -4.0849e-06 -1.03698
-0.1 0.466504 -0.465603 -4.7239e-07 -0.871994 0.824394
0.46326 0.404226 0.463153 -0.830967 -0.264855 -0.824224
0.3 -0.437444 0.478438 -0 0.603882 -1.03698
0.399409 -0.3 0.497029 -0.234102 -0 -1.17694
0.497029 -0.399409 -0.3 -1.17694 0.234119 -0
-0.3 -0.437444 0.478438 -0 0.603883 -1.03698
-0.5 0.15 -0.2 -0 1.07331 -0.536656
-0.399409 -0.15 0.497029 0.234105 7.08294e-06 -1.17694
0.497029 -0.399409 -0.2 -1.17694 0.234105 -0
-0.25 -0.5 -0.25 -0 -0 -0
0.465603 -0.466504 0.2 -0.824395 0.871993 9.44781e-07
-0.35 0.15 0.5 -0 1.2 -0
-0.478438 0.2 -0.437444 1.03698 8.59979e-07 0.603881
0 0.1 0.5 -0 -1.2 -0
0.463507 -0.46277 -0.404793 -0.844378 0.798283 0.299615
0.437444 0.25 -0.478438 -0.603882 -0 1.03698
-0.466504 0.465603 -0.2 0.871993 -0.824395 -9.44781e-07
-0.15 0.1 0.5 -1.16417 -0.291043 -0
-0.497029 -0.1 0.399409 1.17694 3.54143e-06 -0.234102
-0.25 0.399409 0.497029 -0 -0.234105 -1.17694
0.2 -0.25 0.5 -1.2 -0 -0
0 0.5 -0.1 -0 -0 1.2
-0.465603 -0.466504 -0.2 0.824395 0.871993 -9.44781e-07
-0.5 -0.15 0.2 -0 -1.07331 0.536656
0.05 0.5 -0.35 -1.2 -0 -0
0.05 -0.15 0.5 0.421348 1.1236 -0
0.35 0.1 0.5 -0 -0 -0
0.465603 -0.25 -0.466504 -0.824395 -0 0.871993
0.2 -0.3 -0.5 1.2 -0 -0
0.15 0.5 -0.2 -1.07331 -0 0.536656
-0.5 -0.2 0.35 -0 1.2 -0
-0.05 0.1 0.5 -1.18064 -0.214663 -0
0.437444 -0.35 0.478438 -0.603882 -0 -1.03698
0.5 -0.25 0.15 -0 -1.2 -0
-0.3 0.15 0.5 -0 -1.2 -0
-0.5 0 -0.2 -0 -0 1.2
-0.35 0.5 -0.1 -0 -0 1.2
0.5 -0.05 -0.35 -0 1.2 -0
0.3 0 -0.5 -0 -0 -0
-0.399409 3.57628e-08 0.497029 0.234105 1.41659e-05 -1.17694
-0.399409 -0.3 -0.497029 0.234102 -0 1.17694
-0.437444 0.478438 0.15 0.603881 -1.03698 -1.71996e-06
0.05 0.5 0.2 1.2 -0 -0
0.3 -0.1 -0.5 -0 1.2 -0
-0.5 0.05 -0.15 -0 -1.2 -0
0.1 0.1 0.5 -0.848528 -0.848528 -0
0.25 -0.1 -0.5 -0 -1.2 -0
-0.35 0.465603 -0.466504 -0 -0.824396 0.871992
0.399409 -0.15 0.497029 -0.234116 -0 -1.17694
-0.497029 -0.399409 0.2 1.17694 0.234105 -0
0.478438 -0.25 -0.437444 -1.03698 -0 0.603882
0.15 -0.05 -0.5 -0 1.2 -0
0.3 0.5 -0.35 -0 -0 -0
0.15 -0.5 0.1 0.749634 -0 0.937043
-0.1 -0.497029 0.399409 1.77073e-05 1.17694 -0.234119
0 0.2 -0.5 -0 1.2 -0
-0.5 0.25 0.15 -0 -1.2 -0
0.497029 -0.25 -0.399409 -1.17694 -0 0.234102
0.437444 -0.35 -0.478438 -0.603881 -0 1.03698
-0.15 0.3 -0.5 -0 -0 -0
-0.15 0.5 -3.57628e-08 0.848528 -0 -0.848528
0.5 -0.3 -0.2 -0 -0 1.2
-0.478438 0.3 -0.437444 1.03698 -0 0.603883
-0.497029 -0.35 -0.399409 1.17694 -0 0.234119
0.399409 -0.05 -0.497029 -0.234119 -1.9478e-05 1.17694
0 -0.35 -0.5 -0 -0 -0
-0.497029 -0.35 0.399409 1.17694 -0 -0.234105
0.05 0.15 0.5 0.72 0.96 -0
0.3 -0.05 0.5 -0 -1.2 -0
0.15 0.465603 0.466504 -0 -0.824395 -0.871993
-0.5 0.15 0.1 -0 0.749634 0.937043
-0.399409 -0.497029 0.05 0.234102 1.17694 1.94778e-05
0.399409 -0.497029 -0.2 -0.234116 1.17694 -7.08284e-06
0.437444 -0.25 0.478438 -0.603882 -0 -1.03698
0.35 -0.5 0.25 -0 -0 -0
-0.5 0 0.2 -0 -0 -1.2
-0.35 -0.399409 -0.497029 -0 0.234119 1.17694
0.5 -0.2 0 -0 1.2 -0
-0.05 0 -0.5 1.2 -0 -0
-0.5 0.25 -0.2 -0 -0 -1.2
-0.5 0 -0.25 -0 -0 -0
0.478438 0.15 0.437444 -1.03698 1.71996e-06 -0.603882
0 0 0.5 -0 -0 -0
-0.3 0.399409 0.497029 -0 -0.234119 -1.17694
-0.5 0.15 0.25 -0 -1.2 -0
0.3 0.5 0.25 -0 -0 -1.2
0.437444 -0.478438 -0.0500001 -0.603882 1.03698 -4.0849e-06
-0.398958 0.398958 0.494285 0.211942 -0.211942 -1.16196
0.497029 -0.399409 3.57628e-08 -1.17694 0.234105 1.41659e-05
0.1 0.478438 -0.437444 -4.2999e-07 -1.03698 0.603882
-0.478438 -0.3 0.437444 1.03698 -0 -0.603883
0.437444 0.478438 0.1 -0.603882 -1.03698 1.28997e-06
0.5 0.3 0.3 -0 -0 -0
-0.5 -0.1 0.35 -0 -0.72 0.96
-0.5 -0.1 -0.3 -0 1.2 -0
0.399409 -0.497029 0.3 -0.234119 1.17694 -0
0.15 -0.399409 -0.497029 -7.08284e-06 0.234116 1.17694
0.15 -0.5 -0.05 -0.96 -0 0.72
0.35 0.5 -0.3 -0 -0 -0
-0.404226 0.46326 -0.463153 0.264853 -0.830968 0.824224
-0.494229 0.398852 -0.39883 1.15435 -0.229609 0.234022
-0.35 0.466504 0.465603 -0 -0.871992 -0.824396
-0.5 0.35 -0.2 -0 -0 -1.2
-0.3 0.05 0.5 -0 1.2 -0
0.2 -0.465603 0.466504 9.44781e-07 0.824395 -0.871993
-0.478438 -0.15 0.437444 1.03698 -1.71996e-06 -0.603882
0.478438 0 0.437444 -1.03698 -0 -0.603881
-0.2 -0.25 -0.5 -1.2 -0 -0
-0.3 0.35 0.5 -0 -0 -0
-0.3 -0.399409 0.497029 -0 0.234102 -1.17694
-0.2 -0.15 0.5 0.536656 -1.07331 -0
-0.5 -0.1 -0.2 -0 -1.17142 0.260317
-0.435626 -0.395419 -0.477009 0.627255 0.199922 1.00329
-0.25 0.5 -0.35 1.2 -0 -0
0.25 -0.5 -0.05 -1.1236 -0 0.421348
0.15 0.466504 -0.465603 -0 -0.871993 0.824395
-0.15 0.15 -0.5 -0 1.2 -0
-0.5 -0.2 -0.2 -0 1.2 -0
-0.5 -1.78814e-08 0.35 -0 1.2 -0
-0.2 -0.5 -0.35 1.2 -0 -0
-0.15 0.399409 0.497029 7.08294e-06 -0.234105 -1.17694
0.15 0.478438 -0.437444 -0 -1.03698 0.603882
-0.25 -0.5 0 -0 -0 -0
0.05 0.5 0.1 0.688155 -0 -0.983078
-0.5 -0.2 -0.25 -0 -1.2 -0
0.465603 -0.466504 -0.3 -0.824394 0.871994 -0
0.35 0.5 0.3 1.2 -0 -0
-0.3 -0.497029 -0.399409 -0 1.17694 0.234102
0.395419 -0.435626 0.477009 -0.199922 0.627255 -1.00329
-0.05 -0.5 -0.1 0.99846 -0 -0.66564
-0.25 0.5 0.15 0.848528 -0 -0.848528
-0.05 -0.1 0.5 -0.99846 0.66564 -0
-0.2 0.5 0.35 -1.2 -0 -0
-0.465603 0.3 0.466504 0.824394 -0 -0.871994
-0.05 0.35 0.5 -0.970483 0.705806 -0
-0.437444 0 -0.478438 0.603881 -0 1.03698
-0.478438 -0.437444 0.25 1.03698 0.603882 -0
0.2 0.35 0.5 -0.536656 1.07331 -0
0.465603 -0.35 0.466504 -0.824396 -0 -0.871992
-0.05 -0.05 0.5 -0.848528 -0.848528 -0
0.437444 -0.478438 0.05 -0.603882 1.03698 2.36495e-06
0.15 0.5 -0.35 1.2 -0 -0
0.5 -0.05 0.3 -0 -1.2 -0
0.3 -0.2 0.5 -0 1.2 -0
-0.3 0.2 -0.5 -0 1.2 -0
0.5 0.1 -0.3 -0 1.2 -0
0.46606 0 0.46606 -0.848528 -0 -0.848528
-0.05 0.399409 -0.497029 -5.31214e-06 -0.234102 1.17694
-0.2 -0.5 0.2 1.2 -0 -0
-0.466504 -0.465603 -0.3 0.871994 0.824394 -0
-0.2 0.5 -0.25 1.2 -0 -0
0.3 0.465603 0.466504 -0 -0.824394 -0.871994
-3.57628e-08 0.399409 -0.497029 -1.41659e-05 -0.234105 1.17694
-0.05 0.5 -0.35 -1.2 -0 -0
0.35 -0.5 -0.05 0.98885 -0 0.679835
0.446538 0.446538 0.446728 -0.705525 -0.705525 -0.666685
0.35 0.5 0.2 1.07331 -0 -0.536656
0.437444 0.2 -0.478438 -0.603881 8.59979e-07 1.03698
0.476695 -0.395364 0.435989 -1.01382 0.201657 -0.609514
0.1 0.25 0.5 -0.937043 0.749634 -0
-0.15 -0.25 0.5 -0 -1.2 -0
0.5 0 0.15 -0 -0 -0
0.35 -0.15 -0.5 -0 -0 -0
0.497029 -0.2 0.399409 -1.17694 -0 -0.234105
-0.497029 -0.25 -0.399409 1.17694 -0 0.234105
0.2 -0.466504 -0.465603 9.44781e-07 0.871993 0.824395
0.2 -0.5 -0.25 1.2 -0 -0
-0.3 0.5 -0.3 -0 -0 -0
0.5 0.35 -0.35 -0 1.2 -0
0.5 -0.15 0.3 -0 -0 -0
0.35 -0.5 -0.3 -1.2 -0 -0
0.1 0.5 0 -1.2 -0 -0
-0.35 -0.2 -0.5 -0 1.2 -0
-0.25 0.5 0.25 -0 -0 -0
-0.3 0.5 0.3 -0 -0 -0
-0.5 0 -0.05 -0 -0 1.2
-0.399409 -0.497029 0.35 0.234105 1.17694 -0
-0.497029 0.35 0.399409 1.17694 -0 -0.234119
0.3 -0.5 0.1 -1.1236 -0 -0.421348
0.5 0.25 0 -0 -0 -0
-0.15 -0.25 -0.5 -0.848528 -0.848528 -0
0.1 0.1 -0.5 0.379473 -1.13842 -0
0.2 -0.5 0.35 -1.2 -0 -0
0.5 -0.05 0.25 -0 -1.2 -0
-0.1 -0.05 -0.5 -0.66564 0.99846 -0
-0.497029 -0.399409 0.3 1.17694 0.234119 -0
0.35 0.5 -0.35 -0 -0 -0
0.3 -0.5 0.15 0.848528 -0 0.848528
0.5 -0.1 -0.2 -0 0.536656 -1.07331
-0.497029 -0.399409 -0.35 1.17694 0.234105 -0
0.398958 0.398958 0.494285 -0.211942 -0.211942 -1.16196
-0.1 -0.5 0.35 -0 -0 -0
0.478438 -0.437444 0.25 -1.03698 0.603882 -0
0.478438 0.437444 -0.1 -1.03698 -0.603882 -1.28997e-06
-0.2 -0.3 0.5 1.2 -0 -0
0.35 -0.5 0.1 -0 -0 1.2
0.399409 0.497029 0.3 -0.234102 -1.17694 -0
0.35 0.3 -0.5 -0 -0 -0
0.35 0.5 0.15 1.2 -0 -0
-0.5 -0.35 -0.2 -0 1.07331 -0.536656
0.0500001 -0.5 -0.35 -1.2 -0 -0
0 0.5 -0.15 -0 -0 -0
-0.466504 0.465603 0.3 0.871994 -0.824394 -0
0.15 -0.25 -0.5 -0 1.2 -0
-0.5 0.15 -0.25 -0 -1.2 -0
0.437444 -0.478438 0.35 -0.603881 1.03698 -0
0.35 -0.5 0.3 -0 -0 -0
-0.5 -0.2 -0.35 -0 1.2 -0
-0.15 -0.5 0.15 -1.2 -0 -0
-0.478438 0.1 0.437444 1.03698 -2.14995e-06 -0.603882
-0.05 -0.5 0.2 1.2 -0 -0
0.5 0.05 -0.1 -0 0.688155 0.983078
0.35 -0.2 0.5 -0 -1.2 -0
-0.497029 -0.399409 -0.25 1.17694 0.234102 -0
-0.15 -0.5 -0.05 -1.1236 -0 0.421348
0.35 -0.3 0.5 -0 -0 -0
-0.465603 -0.3 -0.466504 0.824394 -0 0.871994
0.437444 -0.2 0.478438 -0.603881 -8.59979e-07 -1.03698
-0.5 0.3 0 -0 1.2 -0
0.398852 0.494229 -0.39883 -0.229609 -1.15435 0.234022
-0.25 0.5 0.35 -1.2 -0 -0
-0.478438 -0.2 0.437444 1.03698 -8.59979e-07 -0.603881
0.15 0.25 0.5 -0 1.2 -0
-1.78814e-08 0.5 0.35 -1.2 -0 -0
-0.35 0.3 -0.5 -0 1.2 -0
-0.3 0.05 -0.5 -0 -1.2 -0
0.2 0.25 0.5 -1.2 -0 -0
0.437444 -0.478438 -0.2 -0.603881 1.03698 -8.59979e-07
-0.1 -0.2 -0.5 -1.11417 -0.445669 -0
0.35 -1.78814e-08 0.5 -0 -1.2 -0
-0.5 -0.3 -0.05 -0 -0 1.2
-0.2 0.437444 0.478438 8.5998e-07 -0.603883 -1.03698
-0.25 -0.05 0.5 -0 -1.2 -0
-0.5 0.25 0.2 -0 -0 1.2
0 0.5 -0.2 -0 -0 -1.2
0.15 -0.437444 -0.478438 -0 0.603882 1.03698
0.3 -0.05 -0.5 -0 1.2 -0
-0.35 -0.2 0.5 -0 -1.2 -0
0.1 -0.437444 -0.478438 -4.2999e-07 0.603882 1.03698
-0.5 -0.3 -0.25 -0 -0 -1.2
-0.5 0.35 -0.3 -0 -0 -0
-0.437444 0.478438 0.2 0.603883 -1.03698 -8.5998e-07
-0.465603 0.466504 -0.15 0.824395 -0.871993 -0
0.1 -0.497029 -0.399409 -1.77073e-05 1.17694 0.234119
-0.5 0.1 -0.15 -0 0.291043 1.16417
-0.466504 0.465603 -0.1 0.871994 -0.824394 -4.7239e-07
-0.2 -0.1 0.5 -0.260317 1.17142 -0
0.465603 0.15 -0.466504 -0.824395 -0 0.871993
-0.5 -0.3 0.35 -0 -0 -0
0.5 0.1 -0.05 -0 -0.66564 -0.99846
-0.437444 0.0500001 0.478438 0.603882 4.0849e-06 -1.03698
-0.2 0.1 -0.5 0.260317 1.17142 -0
0.15 -0.5 -0.15 1.2 -0 -0
0.1 -0.15 -0.5 0.937043 -0.749634 -0
0.5 0.25 -0.15 -0 1.2 -0
-0.1 0.5 0.35 0.72 -0 -0.96
0.05 -0.35 0.5 0.970483 -0.705806 -0
0.3 -0.2 -0.5 -0 -1.2 -0
-0.1 0.5 -0.2 1.17142 -0 -0.260317
8.9407e-09 -0.5 0.35 -1.2 -0 -0
-0.35 0.5 -0.2 -1.07331 -0 0.536656
0.5 0.15 0.3 -0 1.2 -0
-0.15 0.25 0.5 0.848528 -0.848528 -0
0.35 0.437444 0.478438 -0 -0.603882 -1.03698
-0.3 -0.5 0 -1.2 -0 -0
-0.399409 0.3 -0.497029 0.234119 -0 1.17694
-0.15 0.465603 -0.466504 -0 -0.824395 0.871993
0.3 -0.465603 -0.466504 -0 0.824394 0.871994
-0.437444 0.05 -0.478438 0.603882 2.36495e-06 1.03698
0.25 0.25 -0.5 -0 -0 -0
0.15 0.497029 0.399409 -7.08294e-06 -1.17694 -0.234105
-0.2 -0.437444 0.478438 -0 0.603881 -1.03698
0.25 0.1 0.5 -0 -1.2 -0
-0.25 -0.478438 -0.437444 -0 1.03698 0.603882
-0.5 0.1 0 -0 1.2 -0
-0.1 -0.466504 0.465603 -4.7239e-07 0.871994 -0.824394
0.465603 0.466504 -0.1 -0.824394 -0.871994 -4.7239e-07
-0.5 1.78814e-08 -0.35 -0 -1.2 -0
-0.1 -0.437444 -0.478438 2.14995e-06 0.603882 1.03698
-0.1 0.478438 0.437444 4.2999e-07 -1.03698 -0.603882
-0.3 0.465603 -0.466504 -0 -0.824394 0.871994
0.35 0.497029 -0.399409 -0 -1.17694 0.234105
-0.05 0.478438 -0.437444 -2.36495e-06 -1.03698 0.603882
-0.437444 0 0.478438 0.603881 -0 -1.03698
-0.478438 0 0.437444 1.03698 -0 -0.603881
-0.5 -0.2 -0.15 -0 -1.2 -0
0.2 0.497029 -0.399409 7.08284e-06 -1.17694 0.234116
0 0 -0.5 -0 -0 -0
-0.1 0.25 -0.5 -0.937043 -0.749634 -0
0.15 0.05 0.5 -0 1.2 -0
-0.465603 -0.25 0.466504 0.824395 -0 -0.871993
-0.399409 -0.05 -0.497029 0.234102 -1.94778e-05 1.17694
0.1 0.5 -0.1 1.13842 -0 0.379473
0.2 0.2 0.5 -0 1.2 -0
0.5 -0.35 -0.1 -0 -0 -1.2
-0.1 -0.3 -0.5 0.421348 1.1236 -0
0.437444 0.478438 0.2 -0.603881 -1.03698 8.59979e-07
-0.05 -0.5 0.15 1.2 -0 -0
-0.3 -0.3 0.5 -0 -0 -0
0.497029 3.57628e-08 0.399409 -1.17694 1.41659e-05 -0.234105
0.15 0.5 -0.1 -0.749634 -0 0.937043
0.25 0.437444 0.478438 -0 -0.603882 -1.03698
0.478438 0.437444 -0.0500001 -1.03698 -0.603882 -4.0849e-06
0.497029 0.399409 0.3 -1.17694 -0.234119 -0
0.5 0.1 0.3 -0 -1.2 -0
0.35 -0.465603 -0.466504 -0 0.824396 0.871992
-0.5 0.05 -0.2 -0 -0.72 -0.96
-0.1 -0.5 0.3 1.2 -0 -0
0.3 -0.15 -0.5 -0 -0 -0
-0.2 0.5 -0.2 -1.2 -0 -0
0 0.5 -0.25 -0 -0 -0
-0.25 0.35 0.5 -0 -0 -0
-0.465603 -0.1 0.466504 0.824394 -4.7239e-07 -0.871994
-0.497029 0.399409 0.05 1.17694 -0.234102 1.94778e-05
0.437444 -0.25 -0.478438 -0.603882 -0 1.03698
-0.25 -0.2 0.5 -0 1.2 -0
-0.5 -0.25 -0.2 -0 -0 -1.2
-0.466504 -0.465603 0.1 0.871994 0.824394 4.7239e-07
0.1 0.437444 0.478438 -4.2999e-07 -0.603882 -1.03698
0.437444 -0.478438 -0.15 -0.603882 1.03698 -1.71996e-06
0.25 -0.5 0.25 -0 -0 -0
0.5 -0.35 0.35 -0 -1.2 -0
0.25 0.2 0.5 -0 -1.2 -0
0.35 0.05 -0.5 -0 1.2 -0
-0.5 -0.1 -0.05 -0 -0.66564 0.99846
0.35 0.478438 -0.437444 -0 -1.03698 0.603882
-0.463507 0.46277 -0.404793 0.844378 -0.798283 0.299615
0.25 -0.25 0.5 -0 -0 -0
0.5 0.25 0.1 -0 -0 -1.2
-0.25 0.25 -0.5 -0 -0 -0
0.2 0.5 0.1 1.07331 -0 -0.536656
-0.5 0.05 0.05 -0 -0.848528 -0.848528
0.437444 0.478438 -0.15 -0.603881 -1.03698 1.71996e-06
-0.35 -0.5 0.25 -1.2 -0 -0
0.436231 0.476657 0.395126 -0.600062 -1.01726 -0.212409
0.2 0.437444 -0.478438 -8.5998e-07 -0.603883 1.03698
-0.5 0.35 0.25 -0 1.2 -0
-0.5 0.1 0.25 -0 1.2 -0
0.437444 -0.1 0.478438 -0.603882 -1.28997e-06 -1.03698
-0.25 0.25 0.5 -0 -0 -0
-0.5 0.25 -0.1 -0 -0 -1.2
-0.35 0.5 -0.3 -1.2 -0 -0
-0.5 -0.35 0.3 -0 -0 -0
-0.497029 -0.399409 -0.3 1.17694 0.234102 -0
0.5 -0.05 0.1 -0 -0.688155 -0.983078
0.478438 -0.15 0.437444 -1.03698 1.71996e-06 -0.603881
0.5 0.25 -0.25 -0 -0 -0
0.5 -0.3 0.3 -0 -0 -0
-0.35 0.25 0.5 -0 1.2 -0
0.497029 0.399409 -0.35 -1.17694 -0.234105 -0
-0.399409 0.497029 0.2 0.234105 -1.17694 -0
0.399409 0.3 0.497029 -0.234119 -0 -1.17694
-0.466504 -0.15 0.465603 0.871993 -0 -0.824395
0.5 -0.1 -0.05 -0 0.214663 -1.18064
-0.465603 -0.2 0.466504 0.824395 -9.44781e-07 -0.871993
-0.466504 -0.465603 0.25 0.871993 0.824395 -0
-0.1 -0.5 0 -1.2 -0 -0
0.5 0.15 -0.15 -0 1.2 -0
0.466504 0.465603 0.2 -0.871993 -0.824395 9.44781e-07
0.25 0.497029 -0.399409 -0 -1.17694 0.234102
0.3 0.478438 0.437444 -0 -1.03698 -0.603882
-0.2 -0.5 0.1 1.07331 -0 0.536656
-0.478438 -0.437444 -0.1 1.03698 0.603882 -1.28997e-06
0.25 -0.5 0.3 -0 -0 -0
-0.15 -0.35 0.5 -0 -1.2 -0
0.25 -0.35 0.5 -0 -0 -0
0.5 0.1 0.1 -0 -1.13842 0.379473
-0.497029 -0.3 -0.399409 1.17694 -0 0.234119
0.2 0.1 0.5 0.260317 -1.17142 -0
-0.465603 0.2 -0.466504 0.824395 9.44781e-07 0.871993
0.25 0.5 0.3 -0 -0 -0
0.05 0.465603 -0.466504 -2.59815e-06 -0.824396 0.871992
-0.15 -0.5 -0.1 -0.749634 -0 -0.937043
0.478438 -0.0500001 -0.437444 -1.03698 -4.0849e-06 0.603882
0.5 -0.1 -0.35 -0 0.72 0.96
0.1 -0.466504 -0.465603 4.7239e-07 0.871994 0.824394
0.5 0.25 -0.05 -0 1.1236 -0.421348
-0.15 0.5 -0.25 -1.2 -0 -0
0.5 -0.05 0.15 -0 -1.2 -0
0.5 -0.3 0.2 -0 -0 -1.2
-0.1 0.05 -0.5 -0.983078 -0.688155 -0
-0.437444 0.25 0.478438 0.603882 -0 -1.03698
-0.5 -0.15 -0.1 -0 -0.749634 -0.937043
0.05 0 0.5 1.2 -0 -0
0.478438 -0.2 0.437444 -1.03698 8.5998e-07 -0.603883
-0.1 -0.399409 -0.497029 1.77073e-05 0.234119 1.17694
-0.5 0.1 -0.3 -0 1.2 -0
-0.437444 0.478438 -0.25 0.603882 -1.03698 -0
-0.437444 0.478438 0.3 0.603882 -1.03698 -0
0.497029 -0.399409 0.05 -1.17694 0.234102 1.94778e-05
-0.3 -0.437444 -0.478438 -0 0.603882 1.03698
-0.5 -0.15 -0.3 -0 -0 -0
0.5 -0.1 0.05 -0 0.66564 0.99846
-0.437444 0.15 0.478438 0.603882 1.71996e-06 -1.03698
0.3 -0.5 -0.25 -0 -0 -1.2
-0.3 0.5 -0.35 1.2 -0 -0
-0.25 0.478438 -0.437444 -0 -1.03698 0.603882
0.15 -0.5 0.15 -0 -0 -0
0.478438 0.437444 0.25 -1.03698 -0.603882 -0
0.437444 0.478438 0.15 -0.603882 -1.03698 1.71996e-06
0.5 -0.15 2.98209e-08 -0 0.848528 0.848528
0.46326 -0.404226 0.463153 -0.830968 0.264853 -0.824224
0.15 0.3 -0.5 0.848528 0.848528 -0
0.3 0.5 0.05 -0 -0 1.2
-0.5 -0.25 -0.05 -0 1.1236 0.421348
3.57628e-08 -0.497029 0.399409 1.41659e-05 1.17694 -0.234105
0.5 0.25 -0.35 -0 -1.2 -0
-0.2 0.5 0.1 0.445669 -0 -1.11417
-0.2 0.5 -0.1 -1.07331 -0 0.536656
0.15 0.5 0.2 1.07331 -0 -0.536656
0.3 -0.5 0.35 -0 -0 -0
-0.478438 -0.437444 -0.3 1.03698 0.603883 -0
0.1 0.5 0.05 -0.66564 -0 0.99846
-0.25 -0.3 0.5 1.2 -0 -0
0.35 -0.5 0.15 -0 -0 1.2
-0.466504 -0.465603 0.05 0.871992 0.824396 -2.59815e-06
0.5 -0.25 0.3 -0 -0 -0
0.35 -0.35 -0.5 -0 -1.2 -0
0.2 -0.3 0.5 -1.2 -0 -0
-0.15 -0.466504 -0.465603 -0 0.871993 0.824395
0.395419 0.435626 -0.477009 -0.199922 -0.627255 1.00329
-0.25 0.5 0.1 -0 -0 -1.2
0.478438 0.35 -0.437444 -1.03698 -0 0.603881
0.35 -0.0500001 -0.5 -0 1.2 -0
-0.497029 -0.399409 -0.1 1.17694 0.234102 3.54143e-06
0.2 0.5 0 -1.2 -0 -0
0.35 0.35 0.5 -0 -1.2 -0
-0.35 -0.1 -0.5 -0.96 -0.72 -0
-0.399409 -0.35 0.497029 0.234119 -0 -1.17694
0.1 0.05 0.5 -0.983078 0.688155 -0
0.15 -0.1 0.5 1.16417 0.291043 -0
0.2 -0.05 -0.5 -0 1.2 -0
0.437444 0.478438 0.3 -0.603883 -1.03698 -0
0.5 -0.35 0.1 -0 -0 -1.2
0.437444 0.478438 -0.2 -0.603883 -1.03698 8.5998e-07
0.25 -0.5 -0.35 1.2 -0 -0
-0.05 -0.25 -0.5 1.12775 -0.410092 -0
-0.436231 -0.476657 -0.395126 0.600062 1.01726 0.212409
0.497029 0.399409 0.15 -1.17694 -0.234105 -7.08294e-06
0.05 0.35 0.5 0.679835 -0.98885 -0
0.476657 -0.436231 0.395126 -1.01726 0.600062 -0.212409
-0.1 -0.437444 0.478438 4.2999e-07 0.603882 -1.03698
0.3 0.497029 0.399409 -0 -1.17694 -0.234119
0.15 0.15 0.5 -0 -1.2 -0
0.1 0.5 0.1 -0.848528 -0 -0.848528
0.3 -0.25 -0.5 -0 -0 -0
-0.395419 -0.435626 -0.477009 0.199922 0.627255 1.00329
-0.466504 -0.3 0.465603 0.871994 -0 -0.824394
0.3 0.25 0.5 -0 -0 -0
0.399409 -0.497029 0.1 -0.234119 1.17694 -1.77073e-05
-0.5 0.25 0.25 -0 -0 -0
0.399409 -0.35 -0.497029 -0.234119 -0 1.17694
-0.497029 0.399409 -0.3 1.17694 -0.234119 -0
-0.1 0.399409 -0.497029 3.54143e-06 -0.234102 1.17694
-0.466504 -0.25 -0.465603 0.871993 -0 0.824395
-0.465603 0.1 -0.466504 0.824394 4.7239e-07 0.871994
-0.15 -0.15 -0.5 -0 -0 -0
-0.399409 0.05 0.497029 0.234102 1.94778e-05 -1.17694
0.1 -0.05 0.5 -0.66564 -0.99846 -0
-0.3 0.5 -0.2 -0 -0 1.2
-0.5 -0.1 0.05 -0 -0.214663 -1.18064
-0.25 -0.5 0.1 0.749634 -0 0.937043
-0.437444 -0.478438 -0.3 0.603882 1.03698 -0
0.494229 0.398852 0.39883 -1.15435 -0.229609 -0.234022
0.399409 -0.497029 -0.05 -0.234102 1.17694 -1.94778e-05
-0.399409 0.497029 0.25 0.234105 -1.17694 -0
0.2 -0.497029 -0.399409 -0 1.17694 0.234105
-0.05 -0.2 -0.5 1.2 -0 -0
-0.5 0.05 0.25 -0 -1.2 -0
-0.5 0.05 0.1 -0 -0.688155 0.983078
0.466504 -0.35 -0.465603 -0.871992 -0 0.824396
-0.05 0.465603 0.466504 2.59815e-06 -0.824396 -0.871992
-0.399409 0.497029 0.15 0.234105 -1.17694 -7.08294e-06
-0.25 -0.5 -0.1 -0 -0 -1.2
0.1 0.478438 0.437444 -2.14995e-06 -1.03698 -0.603882
-0.1 -0.3 0.5 0.635999 -1.0176 -0
-0.5 -0.35 -0.25 -0 -1.2 -0
0.1 -0.5 -0.2 1.17142 -0 0.260317
0.25 0.5 -0.25 -0 -0 -0
-0.497029 -0.399409 0.25 1.17694 0.234105 -0
-0.25 0.2 -0.5 -0 1.2 -0
-0.15 -0.5 0.35 -0 -0 -0
0.15 -0.478438 -0.437444 -1.71996e-06 1.03698 0.603881
0.465603 0.466504 -0.25 -0.824395 -0.871993 -0
-0.399409 -0.497029 0.3 0.234102 1.17694 -0
0.2 0.478438 -0.437444 -0 -1.03698 0.603881
-0.15 -0.5 0.05 0.96 -0 -0.72
-0.497029 0.399409 0.2 1.17694 -0.234116 7.08284e-06
-0.05 -0.5 -0.35 -1.2 -0 -0
0 -0.05 -0.5 -0 1.2 -0
0.1 0.2 -0.5 1.11417 0.445669 -0
0.3 -0.5 -0.15 -0 -0 -0
0.497029 -0.05 0.399409 -1.17694 -1.9478e-05 -0.234119
0.05 0.5 0.05 0.848528 -0 0.848528
-0.437444 0.2 -0.478438 0.603883 -8.5998e-07 1.03698
0.2 -0.437444 0.478438 -8.5998e-07 0.603883 -1.03698
-0.5 0.2 0.3 -0 -1.2 -0
0.5 0.1 0.15 -0 -0.291043 1.16417
-0.05 0.497029 0.399409 -5.31214e-06 -1.17694 -0.234102
0.05 0.399409 -0.497029 1.9478e-05 -0.234119 1.17694
-0.5 -0.05 -0.15 -0 -1.2 -0
-0.05 -0.15 -0.5 0.421348 -1.1236 -0
-0.5 0.3 -0.15 -0 0.848528 -0.848528
-0.465603 -0.466504 0.3 0.824394 0.871994 -0
0.05 0.497029 -0.399409 5.31214e-06 -1.17694 0.234102
-0.437444 -0.05 0.478438 0.603882 -2.36495e-06 -1.03698
-0.5 -0.3 0.2 -0 -0 1.2
-0.35 -0.5 0.05 -0.98885 -0 -0.679835
0.3 -0.5 0.25 -0 -0 -0
0.5 -0.3 -0.1 -0 -1.1236 -0.421348
-0.35 0.2 0.5 -0 1.2 -0
0.5 -0.15 0.1 -0 0.749634 -0.937043
0.15 -0.1 -0.5 -0 -1.2 -0
0.437444 0.3 -0.478438 -0.603883 -0 1.03698
-0.1 0.5 -0.25 1.2 -0 -0
-0.2 -0.1 -0.5 1.07331 -0.536656 -0
-0.5 0.3 0.25 -0 -0 1.2
-0.497029 -0.15 0.399409 1.17694 -0 -0.234116
0.2 -0.1 -0.5 -0.260317 -1.17142 -0
0.497029 -0.399409 -0.35 -1.17694 0.234119 -0
-0.399409 -0.25 -0.497029 0.234102 -0 1.17694
-0.5 -0.3 0.05 -0 0.705806 -0.970483
0.437444 -0.478438 0.1 -0.603882 1.03698 -2.14995e-06
-0.5 -0.25 0.3 -0 -0 -0
-0.466504 0.1 0.465603 0.871994 4.7239e-07 -0.824394
0.35 0.466504 -0.465603 -0 -0.871992 0.824396
0.3 -0.5 -0.05 -0 -0 1.2
0.5 -0.2 0.25 -0 1.2 -0
0 -0.437444 0.478438 -0 0.603881 -1.03698
-0.35 0.5 0.3 -0 -0 -0
2.98209e-08 0.15 0.5 0.848528 -0.848528 -0
0 0.35 0.5 -0 -0 -0
-0.5 -0.35 -0.05 -0 -0.98885 0.679835
-0.5 0.2 -0.15 -0 -0.99846 0.66564
-0.05 0.3 0.5 -0.970483 0.705806 -0
-0.1 0.1 -0.5 -0.848528 0.848528 -0
-0.5 0.2 0.05 -0 -0.410092 1.12775
-0.478438 0.3 0.437444 1.03698 -0 -0.603882
0.5 0.3 -0.2 -0 -0 1.2
-0.25 -0.5 0.35 -1.2 -0 -0
0.497029 0.399409 -0.15 -1.17694 -0.234116 -0
0.05 -0.35 -0.5 -0.679835 -0.98885 -0
0.2 0.5 0.25 -1.2 -0 -0
-0.5 -0.3 0.3 -0 -0 -0
-0.15 0.2 0.5 -0.66564 0.99846 -0
-0.5 0.3 0.15 -0 -0 -0
0 -0.5 -0.25 -0 -0 -0
-0.478438 0.437444 -0.15 1.03698 -0.603881 1.71996e-06
0.15 0.5 0.25 1.2 -0 -0
0 -0.5 0.2 -0 -0 -1.2
0.3 0.5 0 -1.2 -0 -0
0.05 -0.5 0.1 -0.99846 -0 0.66564
-0.478438 -0.437444 0.1 1.03698 0.603882 -2.14995e-06
-0.2 -0.2 -0.5 -0.848528 -0.848528 -0
-0.5 0.25 -0.35 -0 -1.2 -0
0.494229 -0.398852 -0.39883 -1.15435 0.229609 0.234022
-0.465603 0.15 0.466504 0.824395 -0 -0.871993
-0.399409 0.15 0.497029 0.234116 -0 -1.17694
0.15 0.5 -0.3 -1.2 -0 -0
0.35 8.9407e-09 -0.5 -0 -1.2 -0
-0.5 0.35 -0.15 -0 -0 -1.2
-0.5 -0.3 -0.3 -0 -0 -0
0.5 0.35 0.05 -0 0.705806 0.970483
0.2 -0.437444 -0.478438 -0 0.603881 1.03698
0.1 -0.15 0.5 -0.937043 0.749634 -0
-0.15 0.5 -0.05 -0.96 -0 -0.72
-0.399409 -0.497029 -0.05 0.234119 1.17694 -1.9478e-05
0.5 0.05 0.35 -0 -1.2 -0
0.497029 -0.15 -0.399409 -1.17694 -0 0.234116
-0.5 -0.1 -0.35 -0 -0 -0
0.5 0 0.3 -0 -0 -0
-0.25 0.5 -0.15 -1.2 -0 -0
0.3 -0.5 0.3 -0 -0 -0
0.465603 -0.466504 0.1 -0.824394 0.871994 4.7239e-07
0.5 -0.15 0.05 -0 -0.96 0.72
-0.5 0.25 0.3 -0 -0 -0
0.478438 -0.437444 0 -1.03698 0.603881 -0
0.15 0.5 0.1 -0.749634 -0 -0.937043
-0.5 0.2 0.35 -0 -1.2 -0
-0.0500001 -0.5 0.35 1.2 -0 -0
-0.35 -0.5 -0.1 -0 -0 -1.2
0.05 0.15 -0.5 -0.421348 1.1236 -0
0.399409 -3.57628e-08 0.497029 -0.234105 -1.41659e-05 -1.17694
0.2 0 -0.5 -1.2 -0 -0
0.497029 0.05 -0.399409 -1.17694 1.9478e-05 0.234119
0.5 -0.3 0.25 -0 -0 -1.2
-0.5 0.3 0.1 -0 -1.0176 0.635999
0.398958 -0.398958 0.494285 -0.211942 0.211942 -1.16196
-0.399409 -0.497029 0.1 0.234102 1.17694 -3.54143e-06
-0.2 0.5 0.2 0.848528 -0 -0.848528
0.5 0.1 -0.25 -0 -1.2 -0
-0.2 0.3 -0.5 -1.2 -0 -0
-0.3 0 0.5 -0 -0 -0
0.497029 0.399409 0.2 -1.17694 -0.234105 -0
0.437444 0.35 0.478438 -0.603881 -0 -1.03698
0.5 -0.25 -0.25 -0 -0 -0
0 -0.1 0.5 -0 1.2 -0
0.478438 -0.437444 0.15 -1.03698 0.603882 1.71996e-06
-0.1 0.5 0.3 1.2 -0 -0
-0.15 0.5 0.25 -1.2 -0 -0
-0.1 -0.5 -0.05 -0.214663 -0 1.18064
-0.05 -0.5 0.25 1.2 -0 -0
0.05 -0.5 -0.05 -0.848528 -0 0.848528
0.3 -0.5 -0.3 -0 -0 -0
0.5 0.2 0.3 -0 -1.2 -0
0.5 0.05 -0.25 -0 1.2 -0
-0.35 0.5 0.15 -0 -0 -1.2
0.395364 0.476695 0.435989 -0.201657 -1.01382 -0.609514
-0.05 0.5 0.35 1.2 -0 -0
-0.5 -0.1 0.3 -0 -1.2 -0
-0.2 0.465603 0.466504 -9.44781e-07 -0.824395 -0.871993
-0.478438 0.0500001 -0.437444 1.03698 4.0849e-06 0.603882
-0.15 0.478438 -0.437444 1.71996e-06 -1.03698 0.603881
0.25 0.15 0.5 -0 1.2 -0
0.2 0.437444 0.478438 -0 -0.603881 -1.03698
0.15 -0.5 0.2 1.07331 -0 0.536656
-0.399409 -0.35 -0.497029 0.234105 -0 1.17694
-0.5 -0.2 -0.1 -0 1.07331 -0.536656
0.1 -0.3 0.5 0.421348 -1.1236 -0
0.15 0.399409 0.497029 -7.08284e-06 -0.234116 -1.17694
-0.1 -0.25 -0.5 -1.2 -0 -0
-0.3 -0.25 -0.5 -0 -0 -0
0.1 -0.5 -0.25 1.2 -0 -0
-0.35 -3.12924e-08 -0.5 -0 1.2 -0
0.05 0.478438 0.437444 2.36495e-06 -1.03698 -0.603882
0.465603 0.3 -0.466504 -0.824394 -0 0.871994
0.5 0.2 0 -0 -1.2 -0
0.2 0.05 0.5 -0 1.2 -0
-0.3 0.25 0.5 -0 -0 -0
0.5 0.2 -0.05 -0 -0.410092 -1.12775
-0.35 -0.5 0 -0 -0 -0
0.3 0.5 0.35 -1.2 -0 -0
-0.05 -0.497029 0.399409 -1.9478e-05 1.17694 -0.234119
0.25 -0.2 0.5 -0 1.2 -0
-0.05 -0.497029 -0.399409 -5.31214e-06 1.17694 0.234102
0.3 -0.437444 -0.478438 -0 0.603883 1.03698
-0.399409 -0.2 0.497029 0.234105 -0 -1.17694
-0.446538 -0.446538 -0.446728 0.705525 0.705525 0.666685
-0.494229 0.398852 0.39883 1.15435 -0.229607 -0.234021
-0.1 -0.5 -0.3 -1.2 -0 -0
0 0.05 0.5 -0 1.2 -0
0.5 -0.2 0.35 -0 -1.2 -0
-0.466504 0.465603 0.15 0.871993 -0.824395 -0
-0.3 0.5 -0.15 -0 -0 -0
0.465603 0.05 0.466504 -0.824396 -2.59815e-06 -0.871992
0.1 0.15 -0.5 0.937043 0.749634 -0
-0.497029 0.399409 3.57628e-08 1.17694 -0.234105 1.41659e-05
0.5 0.15 -3.57628e-08 -0 -0.848528 -0.848528
-0.15 0.35 0.5 1.2 -0 -0
0.35 -0.5 -0.25 1.2 -0 -0
-3.12924e-08 -0.5 -0.35 1.2 -0 -0
0.3 0.1 0.5 -0 1.2 -0
0.25 -0.5 0.05 0.410092 -0 -1.12775
0.3 0.15 0.5 -0 -0 -0
-0.478438 0.2 0.437444 1.03698 -8.5998e-07 -0.603883
0.5 0.25 -0.2 -0 -0 1.2
-0.05 -0.437444 -0.478438 -2.36495e-06 0.603882 1.03698
0.497029 0.1 0.399409 -1.17694 -3.54143e-06 -0.234102
-0.5 -0.25 -0.1 -0 0.749634 -0.937043
0.465603 0.25 0.466504 -0.824395 -0 -0.871993
0.25 0.5 0 -0 -0 -0
0.5 -0.2 0.3 -0 1.2 -0
0.465603 -0.466504 -0.15 -0.824395 0.871993 -0
-0.497029 0.25 -0.399409 1.17694 -0 0.234102
0.5 0.05 0.1 -0 0.99846 -0.66564
-0.5 -0.25 0.2 -0 -0 1.2
0.497029 0.35 0.399409 -1.17694 -0 -0.234105
0.5 0 0.05 -0 -0 1.2
0.05 -0.5 -0.25 -1.2 -0 -0
0.15 0.3 0.5 -0 -0 -0
0.399409 -0.497029 -0.15 -0.234116 1.17694 -0
-0.05 -0.399409 0.497029 -5.31214e-06 0.234102 -1.17694
0.5 0.1 -0.1 -0 0.848528 -0.848528
-0.5 -0.05 0.35 -0 1.2 -0
0 -0.5 0.25 -0 -0 -0
0.435626 -0.395419 -0.477009 -0.627255 0.199922 1.00329
-0.2 -0.5 -0.05 -0 -0 1.2
0.25 -0.437444 -0.478438 -0 0.603882 1.03698
-0.5 0.35 0.05 -0 0.98885 -0.679835
0.3 0 0.5 -0 -0 -0
0.15 0.5 -0.05 -1.1236 -0 -0.421348
0.478438 -0.437444 -0.35 -1.03698 0.603881 -0
0.399409 -0.497029 -0.3 -0.234102 1.17694 -0
0.25 0.5 -0.05 -0.410092 -0 -1.12775
0.5 0.05 -0.15 -0 1.2 -0
0.1 -0.5 -0.05 0.66564 -0 0.99846
-0.3 -0.5 -0.3 -0 -0 -0
-0.1 -0.5 0.1 -0.848528 -0 0.848528
0.05 0.5 -0.1 0.99846 -0 0.66564
0.5 -0.35 -0.25 -0 -0 -0
-0.466504 -0.1 -0.465603 0.871994 -4.7239e-07 0.824394
0.399409 -0.497029 -0.35 -0.234105 1.17694 -0
-0.5 0.3 -0.1 -0 -1.1236 0.421348
-0.35 -0.466504 -0.465603 -0 0.871992 0.824396
0.5 -0.1 0.35 -0 -0 -0
-0.3 0.497029 -0.399409 -0 -1.17694 0.234119
0.466504 0.35 0.465603 -0.871992 -0 -0.824396
0.395364 0.476695 -0.435989 -0.201658 -1.01382 0.60951
0.478438 0.35 0.437444 -1.03698 -0 -0.603882
0.15 -0.2 -0.5 -0 1.2 -0
-0.25 0.5 -0.25 -0 -0 -0
-0.35 -0.05 -0.5 -0 -1.2 -0
0.1 0.5 -0.3 -1.2 -0 -0
0.35 -0.2 -0.5 -0 1.2 -0
0.25 -0.399409 0.497029 -0 0.234105 -1.17694
-0.2 -0.2 0.5 -0 -1.2 -0
0.5 -0.05 -0.15 -0 -1.2 -0
-0.5 0.25 -0.15 -0 0.848528 -0.848528
-0.395419 -0.435626 0.477009 0.199922 0.627255 -1.00329
0.1 0.5 -0.15 -0.291043 -0 -1.16417
-0.494229 -0.398852 -0.39883 1.15435 0.229607 0.234021
0.5 0.15 -0.1 -0 -0.749634 0.937043
0.2 0 0.5 1.2 -0 -0
0.398958 -0.398958 -0.494285 -0.211942 0.211942 1.16196
0.3 -0.3 0.5 -0 -0 -0
-0.3 0.437444 0.478438 -0 -0.603882 -1.03698
-0.398852 -0.494229 -0.39883 0.229609 1.15435 0.234022
-0.437444 0.3 0.478438 0.603883 -0 -1.03698
-0.5 0 0.3 -0 -0 -0
0.25 -0.478438 0.437444 -0 1.03698 -0.603882
0.399409 0.497029 0.15 -0.234116 -1.17694 -0
0.478438 -0.437444 -0.1 -1.03698 0.603882 2.14995e-06
0.35 0.399409 0.497029 -0 -0.234105 -1.17694
-0.497029 0.3 0.399409 1.17694 -0 -0.234119
0.399409 0.3 -0.497029 -0.234102 -0 1.17694
0.5 0.05 0 -0 1.2 -0
-0.478438 0.1 -0.437444 1.03698 1.28997e-06 0.603882
0.2 0.5 -0.1 -0.445669 -0 1.11417
0.25 -0.2 -0.5 -0 -1.2 -0
0.1 -0.2 0.5 -1.11417 0.445669 -0
-0.25 0.497029 0.399409 -0 -1.17694 -0.234102
0.5 0.05 0.15 -0 1.2 -0
-0.2 0.15 -0.5 -0.536656 -1.07331 -0
0.35 0.437444 -0.478438 -0 -0.603881 1.03698
-0.404226 -0.46326 0.463153 0.264853 0.830968 -0.824224
-0.05 -0.466504 0.465603 2.59815e-06 0.871992 -0.824396
-0.466504 -0.465603 -0.15 0.871993 0.824395 -0
-0.15 0.5 -0.35 -0 -0 -0
-0.497029 0.399409 0.1 1.17694 -0.234102 -3.54143e-06
0.437444 0.1 0.478438 -0.603882 -2.14995e-06 -1.03698
-0.05 0.15 -0.5 0.72 -0.96 -0
0.5 -0.35 -0.05 -0 -0.705806 -0.970483
-0.15 -0.2 0.5 -0 -1.2 -0
0.25 0.5 0.15 1.2 -0 -0
-0.395364 0.476695 -0.435989 0.201657 -1.01382 0.609514
0.5 0.35 0 -0 -0 -0
0.437444 0.478438 0.0500001 -0.603882 -1.03698 4.0849e-06
-0.497029 0.1 0.399409 1.17694 -1.77073e-05 -0.234119
0.5 -0.3 -0.3 -0 -0 -0
0.35 -0.35 0.5 -0 -0 -0
-0.05 0.25 -0.5 0.421348 -1.1236 -0
0.35 -0.497029 -0.399409 -0 1.17694 0.234119
0.465603 -0.466504 0.05 -0.824396 0.871992 -2.59815e-06
0.437444 -0.05 -0.478438 -0.603882 -2.36495e-06 1.03698
0.35 -0.15 0.5 -0 -1.2 -0
-0.25 -0.497029 -0.399409 -0 1.17694 0.234102
-0.1 -0.5 0.05 -0.66564 -0 -0.99846
0.465603 -0.1 -0.466504 -0.824394 -4.7239e-07 0.871994
-0.478438 -0.437444 0.2 1.03698 0.603883 -8.5998e-07
-0.15 0.437444 -0.478438 -0 -0.603882 1.03698
-0.497029 0.399409 -0.1 1.17694 -0.234119 1.77073e-05
0.2 0.5 0.3 -1.2 -0 -0
0.5 -0.35 -0.35 -0 -0 -0
0.395419 -0.435626 -0.477009 -0.199922 0.627255 1.00329
0.35 -0.478438 -0.437444 -0 1.03698 0.603881
0.15 -0.5 0.3 1.2 -0 -0
0.05 0.5 -0.25 1.2 -0 -0
0.3 0.3 -0.5 -0 -0 -0
0.5 0.35 -0.05 -0 -0.98885 -0.679835
-0.5 0.25 -0.3 -0 -0 -0
0.25 0.5 -0.15 -0.848528 -0 0.848528
-0.35 0.5 0.25 -0 -0 -0
0.478438 -0.437444 0.0500001 -1.03698 0.603882 4.0849e-06
-0.35 0.3 0.5 -0 -0 -0
0.2 0.497029 0.399409 -0 -1.17694 -0.234105
0.435626 0.395419 0.477009 -0.627255 -0.199922 -1.00329
-0.2 0.5 0 1.2 -0 -0
0.3 0.5 -0.1 1.1236 -0 -0.421348
-0.35 0.5 0.35 -0 -0 -0
0.399409 0.497029 0.05 -0.234102 -1.17694 1.94778e-05
0.5 0.05 0.25 -0 1.2 -0
-0.497029 -0.05 -0.399409 1.17694 -1.9478e-05 0.234119
0.5 -0.3 -0.35 -0 -0 -0
-0.2 0.25 0.5 1.2 -0 -0
0.35 0.25 -0.5 -0 -1.2 -0
-0.3 -0.5 -0.25 -0 -0 -0
0.2 0.5 -0.05 -0 -0 -1.2
0.25 0.05 -0.5 -0 -1.2 -0
-0.05 0.35 -0.5 0.679835 0.98885 -0
0 -0.25 0.5 -0 -0 -0
-0.5 -0.25 0 -0 -0 -0
0.399409 0.497029 0.2 -0.234116 -1.17694 7.08284e-06
0.5 -0.05 -0.05 -0 0.848528 0.848528
0.5 0.35 -0.2 -0 1.07331 0.536656
-0.15 -0.2 -0.5 0.66564 0.99846 -0
-0.3 0.5 0.25 -0 -0 -0
-0.2 -0.478438 0.437444 8.5998e-07 1.03698 -0.603883
-0.2 0.5 -0.15 -1.2 -0 -0
-0.15 0.05 0.5 -0 1.2 -0
0 -0.5 -0.3 -0 -0 -0
-0.466504 0.05 0.465603 0.871992 -2.59815e-06 -0.824396
0 -0.25 -0.5 -0 -0 -0
0.15 0.1 0.5 -0 -1.2 -0
-0.5 0.15 -0.05 -0 1.1236 0.421348
0.3 0.437444 -0.478438 -0 -0.603882 1.03698
-0.2 0.5 0.3 1.2 -0 -0
-0.497029 -0.05 0.399409 1.17694 -1.94778e-05 -0.234102
0.35 -0.466504 0.465603 -0 0.871992 -0.824396
-0.5 -0.15 0.3 -0 -1.2 -0
-0.437444 -0.15 -0.478438 0.603882 -1.71996e-06 1.03698
-0.25 0.5 -0.3 -0 -0 -0
0.5 0.25 0.3 -0 -0 -0
0.5 -0.05 -0.1 -0 -0.99846 0.66564
-0.35 -0.465603 0.466504 -0 0.824396 -0.871992
-0.497029 -0.25 0.399409 1.17694 -0 -0.234102
-0.05 -0.478438 0.437444 -2.36495e-06 1.03698 -0.603882
0.2 0.1 -0.5 -1.07331 0.536656 -0
-0.3 0.5 -0.05 -0 -0 -1.2
0.497029 -0.3 -0.399409 -1.17694 -0 0.234102
-0.437444 -0.3 0.478438 0.603882 -0 -1.03698
0.1 0.5 0.15 -1.2 -0 -0
0.2 0.5 -0.35 1.2 -0 -0
0.5 0 0.1 -0 -0 -1.2
0.466504 -0.465603 0.35 -0.871992 0.824396 -0
-0.3 -0.05 0.5 -0 -1.2 -0
0.5 -0.35 0.2 -0 -1.07331 -0.536656
-0.497029 -0.399409 -0.15 1.17694 0.234116 -0
-0.35 -0.5 0.1 -0 -0 1.2
0.05 0.5 -0.3 1.2 -0 -0
-0.5 0.3 -0.25 -0 -0 -0
-0.5 0.15 -0.15 -0 -0 -0
0.35 0.15 -0.5 -0 -1.2 -0
0.399409 0.15 0.497029 -0.234105 -7.08294e-06 -1.17694
-0.478438 0.437444 0 1.03698 -0.603881 -0
0.466504 0.25 -0.465603 -0.871993 -0 0.824395
0.399409 0.25 -0.497029 -0.234102 -0 1.17694
0.399409 0.35 0.497029 -0.234119 -0 -1.17694
0.25 -0.5 0.1 -0 -0 1.2
0.35 -0.1 0.5 -0.96 0.72 -0
-0.1 -0.05 0.5 0.983078 -0.688155 -0
0.497029 0.3 0.399409 -1.17694 -0 -0.234102
0.497029 -0.399409 0.3 -1.17694 0.234102 -0
0.435626 0.395419 -0.477009 -0.627255 -0.199922 1.00329
-0.1 0.5 -0.3 -1.2 -0 -0
-0.05 -0.5 -0.05 0.848528 -0 0.848528
-0.497029 -0.3 0.399409 1.17694 -0 -0.234102
-0.497029 0.399409 0.25 1.17694 -0.234102 -0
0.466504 0.465603 0.25 -0.871993 -0.824395 -0
0.437444 -0.15 0.478438 -0.603882 -1.71996e-06 -1.03698
0.494229 0.398852 -0.39883 -1.15435 -0.229607 0.234021
0.05 -0.5 -0.2 -1.2 -0 -0
-0.35 0.437444 -0.478438 -0 -0.603882 1.03698
0.2 -0.25 -0.5 1.2 -0 -0
-0.465603 -0.466504 -0.1 0.824394 0.871994 -4.7239e-07
0.446538 -0.446538 -0.446728 -0.705525 0.705525 0.666685
0.466504 0.1 -0.465603 -0.871994 4.7239e-07 0.824394
0 -0.5 0 -0 -0 -0
-0.5 0.2 -0.3 -0 -1.2 -0
-0.1 -0.1 0.5 0.848528 0.848528 -0
-0.5 -0.1 0.1 -0 -1.13842 -0.379473
-0.25 0.05 0.5 -0 1.2 -0
0.25 -0.5 -0.2 -0 -0 -1.2
0.15 0.478438 0.437444 -1.71996e-06 -1.03698 -0.603881
-0.3 0.3 0.5 -0 -0 -0
-0.399409 -0.497029 0.2 0.234116 1.17694 7.08284e-06
0 0.25 -0.5 -0 -0 -0
-0.466504 0.25 0.465603 0.871993 -0 -0.824395
3.57628e-08 -0.399409 -0.497029 1.41659e-05 0.234105 1.17694
0.05 -0.25 0.5 1.12775 0.410092 -0
-0.25 0.1 -0.5 -0 1.2 -0
-0.35 0.1 -0.5 -0 -0 -0
-0.3 -0.1 0.5 -0 -1.2 -0
0.35 -0.437444 0.478438 -0 0.603881 -1.03698
-3.57628e-08 -0.399409 0.497029 -1.41659e-05 0.234105 -1.17694
-0.399409 0.497029 -0.3 0.234102 -1.17694 -0
0 0.5 0.05 -0 -0 1.2
-0.5 -0.05 0.15 -0 1.2 -0
0.5 -0.3 0.15 -0 -0 -0
0.497029 -0.399409 0.25 -1.17694 0.234102 -0
-0.437444 0.3 -0.478438 0.603882 -0 1.03698
-0.35 0.5 0.05 -0.705806 -0 0.970483
-0.1 -0.5 0.2 -1.17142 -0 -0.260317
0.5 0.2 0.2 -0 0.848528 0.848528
-0.399409 -0.497029 3.57628e-08 0.234105 1.17694 1.41659e-05
-0.399409 -0.497029 -0.35 0.234119 1.17694 -0
-0.35 -0.5 0.2 1.07331 -0 0.536656
-0.15 -0.5 0.3 -0 -0 -0
0.399409 -0.05 0.497029 -0.234102 -1.94778e-05 -1.17694
0.497029 -0.35 0.399409 -1.17694 -0 -0.234119
0.437444 -0.478438 -0.3 -0.603883 1.03698 -0
-0.478438 0.437444 -0.35 1.03698 -0.603881 -0
-0.5 -0.35 0.05 -0 0.705806 -0.970483
0.46606 0 -0.46606 -0.848528 -0 0.848528
-0.05 0.478438 0.437444 -6.44984e-07 -1.03698 -0.603882
0.1 0.465603 -0.466504 4.7239e-07 -0.824394 0.871994
0.476695 0.395364 0.435989 -1.01382 -0.201658 -0.609511
0.25 0.5 -0.35 1.2 -0 -0
-0.5 0.2 0.1 -0 -1.07331 0.536656
0.35 -0.3 -0.5 -0 -1.2 -0
-0.35 0.497029 0.399409 -0 -1.17694 -0.234105
-0.465603 0.466504 0.1 0.824394 -0.871994 4.7239e-07
0.437444 0.478438 -0.35 -0.603881 -1.03698 -0
0.404226 -0.46326 -0.463153 -0.264853 0.830968 0.824224
0.05 -0.5 0.25 -1.2 -0 -0
0.05 -0.5 -0.1 -0.688155 -0 -0.983078
-0.399409 -0.497029 -0.25 0.234105 1.17694 -0
-0.35 -0.497029 0.399409 -0 1.17694 -0.234119
0.05 0.35 -0.5 -0.970483 -0.705806 -0
-0.463507 -0.46277 0.404793 0.844378 0.798283 -0.299615
-0.25 0.3 -0.5 -1.2 -0 -0
0.399409 0.25 0.497029 -0.234105 -0 -1.17694
-0.5 0.2 -0.2 -0 -0.848528 0.848528
0.05 -0.465603 0.466504 -2.59815e-06 0.824396 -0.871992
0.1 -0.5 0.2 0.536656 -0 -1.07331
-0.25 -0.465603 -0.466504 -0 0.824395 0.871993
-0.478438 -0.1 0.437444 1.03698 -1.28997e-06 -0.603882
-0.399409 -0.497029 -0.15 0.234105 1.17694 7.08294e-06
-0.5 -0.25 0.05 -0 -0.410092 -1.12775
0 -0.3 -0.5 -0 -1.2 -0
0.2 0.05 -0.5 0.96 -0.72 -0
-0.15 0.497029 0.399409 7.08284e-06 -1.17694 -0.234116
0.497029 0.399409 0.35 -1.17694 -0.234119 -0
0.1 0.5 -0.35 -0.72 -0 0.96
0.5 -0.25 0.1 -0 -0.749634 -0.937043
0 0.46606 0.46606 -0 -0.848528 -0.848528
-0.3 -0.05 -0.5 -0 1.2 -0
0.3 0.5 -0.15 -0.848528 -0 0.848528
-0.476695 -0.395364 0.435989 1.01382 0.201658 -0.609511
0.5 -0.15 -0.15 -0 -0 -0
-0.05 -0.5 0.05 0.848528 -0 -0.848528
0.497029 0.399409 0.1 -1.17694 -0.234119 -1.77073e-05
0.5 -0.2 -0.05 -0 -0 -1.2
0.497029 0.399409 0.25 -1.17694 -0.234105 -0
-0.35 -0.437444 0.478438 -0 0.603882 -1.03698
0.1 0.35 -0.5 1.2 -0 -0
0.25 0.466504 0.465603 -0 -0.871993 -0.824395
-0.5 0.05 0 -0 -1.2 -0
-0.5 -0.15 0.15 -0 -0 -0
-0.1 0.5 0.15 0.291043 -0 1.16417
0.5 0.2 0.25 -0 -1.2 -0
-0.15 -0.3 0.5 -0 -0 -0
-0.25 0.465603 0.466504 -0 -0.824395 -0.871993
-0.478438 0.437444 0.3 1.03698 -0.603883 -0
0.15 0.399409 -0.497029 -7.08294e-06 -0.234105 1.17694
-0.05 -0.1 -0.5 1.18064 -0.214663 -0
-0.25 0 0.5 -0 -0 -0
-0.465603 -0.466504 -0.05 0.824396 0.871992 2.59815e-06
0.5 -0.35 -0.15 -0 -0 1.2
0.15 -0.437444 0.478438 -1.71996e-06 0.603881 -1.03698
0 -0.478438 0.437444 -0 1.03698 -0.603881
-0.15 0 0.5 -0 -0 -0
-0.05 -0.5 -0.15 1.2 -0 -0
-0.399409 -0.497029 -0.1 0.234119 1.17694 1.77073e-05
0.15 0.2 -0.5 -0.66564 -0.99846 -0
-0.5 0.3 -0.3 -0 -0 -0
-0.395364 -0.476695 0.435989 0.201657 1.01382 -0.609514
-0.398958 0.398958 -0.494285 0.211942 -0.211942 1.16196
-0.35 -0.5 0.35 -1.2 -0 -0
-0.15 0.5 0.1 0.749634 -0 -0.937043
-0.5 -0.1 0.2 -0 -0.536656 -1.07331
0.465603 -0.05 -0.466504 -0.824396 2.59815e-06 0.871992
0.437444 0.1 -0.478438 -0.603882 1.28997e-06 1.03698
-0.05 -0.5 0.3 1.2 -0 -0
-0.05 0.15 0.5 -0.421348 -1.1236 -0
-0.05 0.3 -0.5 1.2 -0 -0
-0.437444 -0.478438 -0.35 0.603881 1.03698 -0
0.05 0.437444 -0.478438 2.36495e-06 -0.603882 1.03698
0.399409 0.2 -0.497029 -0.234116 7.08284e-06 1.17694
0.2 0.478438 0.437444 -8.5998e-07 -1.03698 -0.603883
0.478438 0.25 -0.437444 -1.03698 -0 0.603882
0.465603 0.466504 0.15 -0.824395 -0.871993 -0
0.5 -0.25 0.2 -0 -0 -1.2
0.2 0.3 0.5 -1.2 -0 -0
-3.57628e-08 -0.15 0.5 -0.848528 0.848528 -0
0.25 -0.5 -0.1 -0.749634 -0 -0.937043
0.15 -0.35 0.5 -1.2 -0 -0
-0.35 -0.25 -0.5 -0 1.2 -0
0.497029 -0.399409 0.15 -1.17694 0.234116 -0
-0.05 0.5 -0.25 -1.2 -0 -0
-0.476695 0.395364 -0.435989 1.01382 -0.201658 0.609511
-0.2 -0.437444 -0.478438 8.5998e-07 0.603883 1.03698
-0.5 -0.05 -0.2 -0 1.2 -0
-0.15 -0.5 2.98209e-08 -0.848528 -0 -0.848528
-0.35 -0.5 0.3 1.2 -0 -0
-0.497029 -0.399409 -0.2 1.17694 0.234116 -7.08284e-06
0.5 -0.1 0.25 -0 1.2 -0
0.5 0.3 0.05 -0 0.705806 0.970483
0.478438 0.05 -0.437444 -1.03698 2.36495e-06 0.603882
0.437444 -0.478438 0.3 -0.603882 1.03698 -0
0.5 0.15 -0.25 -0 1.2 -0
-0.478438 0.437444 -0.3 1.03698 -0.603882 -0
-0.2 0.497029 0.399409 -7.08284e-06 -1.17694 -0.234116
-0.05 0.5 0.3 -1.2 -0 -0
0.25 -0.15 0.5 -0 -1.2 -0
-0.1 0.3 -0.5 -0.635999 -1.0176 -0
0.35 0.3 0.5 -0 -1.2 -0
-0.478438 0.437444 0.35 1.03698 -0.603882 -0
